# 3D point list with one line of data per point:
#   POINT3D_ID, X, Y, Z, R, G, B, ERROR, TRACK[] as (IMAGE_ID, POINT2D_IDX)
# Number of points: 388, mean track length: 5.1659889094269866
2282 -0.26584759533892427 0.91055295259179037 3.460773838106276 224 196 161 0.15696947259956714 39 125 40 206 30 298
2283 -0.2960249452805776 1.0296359494223357 2.8601822968987638 164 119 24 0.18038846992402291 31 301 40 208
2284 -0.52736799635275922 1.2735854688178541 3.5968683882092338 137 122 98 0.43733135960962227 39 237 40 308 2 642
2285 -0.44469068736425871 1.3311618677419259 3.9654952152500562 202 182 163 0.76191798739277961 3 277 40 313 30 289
2286 -0.69817527483957498 2.0871655486547382 3.1796500163320593 173 146 93 0.39966232495506437 39 1128 40 400 30 105
2287 0.41889938954847294 1.0063910694994993 2.0365354645788556 216 189 170 0.35299011800461016 31 491 40 501 30 582
2288 0.15739774927468103 0.5355409740447179 3.4714021922486338 225 184 62 0.21271922683377112 13 57 40 515 30 734
2290 0.065033335315356627 1.0901861058537472 2.2323693178771711 41 31 6 0.35267100255321221 13 64 40 540 30 571
2291 -0.37678358717365773 1.3300357804154967 2.6047635704234033 182 139 44 0.54519903851529461 31 554 40 604 30 561
2292 -0.44493582657482011 1.129592167440495 3.5718345209356221 219 200 170 0.15410672709249676 39 187 40 616 30 269
2293 -0.39615329787865355 1.5047510836495031 2.4830653074431064 198 167 136 0.11972444059457367 31 536 40 631 30 502
2294 -0.42315206729998289 1.4398520466634483 4.1108390990724955 217 188 168 0.335228064578523 13 613 40 673 30 676
2295 -0.29781716943002362 2.025701262609783 2.2011525900334838 156 113 33 0.55082007699422997 3 117 39 816 40 677
2296 -0.43835193097683761 1.5390813678518658 4.1454410590500519 203 162 63 0.21444199995014293 39 1041 40 685
2297 -0.59021622460845069 1.6224447482045561 2.8602239271193972 140 101 21 0.083993759925374875 13 277 40 690 30 127
2299 0.41494207209887612 0.484614038460083 2.804533269212472 216 185 141 1.268131917807001 3 375 39 560 40 768
2300 0.67107819235289379 1.0109052288665583 1.922223826836168 215 169 83 0.087265261378221312 13 417 40 776
2301 0.075401733012895586 1.0645386132553445 2.223676093366016 42 29 18 0.25390093365388761 13 61 40 815 30 575
2302 -0.23026722579503531 0.87161800707625792 3.454388220210955 229 201 172 0.17156416446535303 39 961 40 836 2 596
2303 -0.34055488082655733 1.0022549867661312 3.4701298305358943 214 187 157 0.36271528173272138 39 981 40 853 2 601 27 79
2304 -0.23199053104553752 1.5447767614141332 2.2380808551575235 36 24 10 0.43239401519342491 31 733 40 859 30 479
2307 -0.44282970848268538 1.1992751079143069 3.3759360612081588 43 29 11 1.9541893958983712 39 1208 40 887 2 960
2308 -0.49130636658625937 1.4882494993391377 4.0362223117922307 57 54 45 0.30872804402862103 13 624 40 934 30 661
2309 -0.58621028240011885 1.5673891776620694 2.9336651834155534 163 123 28 0.49762064560023328 31 581 40 937 30 563 2 129
2311 -0.61915159130599762 1.6595374760032158 2.9904820977392301 178 153 119 0.18158412098839355 39 1279 40 947 30 831 3 708
2313 0.27841155385611754 0.47968338131562771 3.6640387541704489 233 208 176 0.29496149723894044 13 749 40 1008 2 971 27 757 10 666
2314 -0.26005921896280459 0.94103485744328419 3.7319869061370148 54 47 39 0.016005538401292266 13 793 40 1041
2315 -0.37264213946120145 1.4079641566779078 2.5285414352108502 181 137 38 0.13079489287392748 39 1233 40 1060 4 770 30 818
2316 -0.53088211894083537 1.2178105553041307 3.4377160263614797 31 24 10 0.58679861764783026 13 1082 40 1071 30 1006
2317 -0.53251042176423269 1.4468521034676081 3.8848116382779749 28 24 12 1.6181230134688684 3 290 39 1245 40 1089
2318 -0.63199872538193358 1.5017779162607836 3.3613637220532535 39 33 21 0.47419866771673758 13 1014 40 1093 30 1000
2319 -0.60981896490180931 1.5646757201593422 3.2537343705473711 203 176 147 0.43820309281170583 13 1015 40 1094 30 859
2320 -0.64258673713435777 1.8188717221453992 3.0346278888604168 155 119 33 0.11612828499134083 13 871 40 1101
2321 -0.26905902583183122 3.3109356569184776 4.1102794487286625 142 108 23 1.3752722540005951 5 1446 40 1113
2322 0.34330649593861479 1.256047395897657 1.9137050947036307 200 172 148 1.0667399162892457 3 614 40 1141 30 1166
2323 0.34330649593861479 1.256047395897657 1.9137050947036307 200 172 148 1.0667399162892457 3 615 40 1142 30 1167
2324 -0.59040841073225414 1.5768116375962218 2.9582931423481882 187 143 36 0.34427573974791187 39 1401 40 1181 30 984 2 793
2325 0.54573771960928052 0.62205557289204649 2.345734057485072 167 127 69 0.41625324654281726 13 1116 40 1205
2326 0.33183320253694498 0.46313925657676436 3.738544996007898 232 203 171 0.77331665855200282 39 1167 40 1210 30 1210 2 1080 27 894 10 772 1 450
2327 -0.41149252840896461 1.1196021408189341 3.6651043445035127 211 185 158 0.88490184502324654 39 1569 40 1314 30 1275
2328 -0.41149252840896461 1.1196021408189341 3.6651043445035127 211 185 158 0.88490184502324654 39 1570 40 1315 30 1276
2329 -0.39094793304020259 1.397923711077113 4.1418352708910886 34 29 20 1.6497645171834494 39 1593 40 1320 30 1277
2330 -0.48989750673804111 1.45155018392973 4.0121851890074343 30 25 14 1.5231843013505229 13 1262 40 1363 30 1303
2331 -0.44692945740000267 1.5000242823785273 2.6158189297043855 247 217 188 0.54353031201790258 37 671 31 779 13 816 3 675 40 1073 5 1078 39 1253 30 813 4 779 12 524 2 510
2332 -0.40801586018819386 1.3741955538412622 2.6250442704416121 183 143 38 0.32386701941001844 41 965 5 1205 40 1166 13 979 39 1381 4 973 2 776
2333 0.31710183800931424 1.6094897532526735 1.77131339320197 145 129 108 0.82677796161952388 39 223 30 52 4 16
2335 -0.61581155929647857 1.6311192198391218 3.0109917655347078 225 207 178 0.11501347984718857 37 115 30 154 4 529
2336 0.44232563897537064 1.0066548031068892 2.0345460810465021 26 16 2 0.20789325650189242 29 557 30 176 23 33 26 15 28 318
2337 0.43850324641232369 1.0045322205306797 2.0348924140632665 26 16 2 0.36800011643540087 31 149 30 177
2338 0.82570345447576743 0.35733725640039049 2.8364151277078458 184 158 123 0.26984666594175494 31 286 40 43 30 358
2339 1.17231710105273 0.27493135076201652 3.1385389365345899 17 8 0 0.36627530073864767 40 19 30 392 2 106
2340 0.28964739978585724 0.48180893132863778 3.6421732988946016 22 12 2 0.18403662179888178 31 386 30 395 27 441
2341 0.38227350289682965 0.45077825400156746 3.7225057224400744 162 126 36 0.42664148512290545 40 494 30 403 2 622
2342 0.42078214168518036 0.44728945169336254 3.800927273650927 156 139 117 0.36031097820545815 40 492 30 407 2 640 27 461 10 386 1 78
2344 0.41889938954847239 1.0063910694994989 2.0365354645788556 184 159 137 0.35299011800467267 31 492 40 502 30 583
2345 -0.35866273944832838 1.1827946958816846 2.7525608691970218 251 218 93 0.33120178210864454 3 416 13 148 30 602
2346 -0.42069995099094898 1.2181526960832723 3.780770134206914 207 184 159 0.42435518148778878 3 241 40 893 30 670
2347 0.65576495592373862 0.38737999420726094 2.8368709267333427 134 99 18 0.36609841259415088 29 646 31 810 30 714 28 565 2 503 27 433 10 498
2348 -0.15519549068051719 0.82088718510637693 3.7153722694678861 183 165 141 0.29926361412629959 40 555 30 721 2 300
2349 1.1632706760003473 0.28381407235936573 3.0315044876904711 24 16 5 0.60922805862888685 40 438 30 740 2 512
2350 -0.60423190596510545 1.6179905981097826 2.9743637455352676 203 164 64 0.76437594200970138 3 834 5 634 39 1405 30 835
2351 0.12269167959348572 1.0241900559166832 2.2363585762282492 204 181 152 0.66157994984910717 31 751 30 846 2 29
2352 0.23978505626663879 0.94123587053111013 2.1937610525145192 180 156 130 0.3411780095119113 31 186 30 855 2 22
2353 -0.6052159484548566 1.4897199803931316 3.3888887961090153 220 199 170 0.18763019871483655 31 824 30 869 27 45
2354 -0.51799733213262178 1.2388543266877039 3.5214242459565428 40 33 23 0.5795863893222869 13 572 30 882 27 62
2355 -0.49800977186155609 1.2234436905931108 3.5866560507293053 36 31 21 0.171183471737164 40 895 30 886 2 637
2356 0.10056884063655532 0.5860414676371053 3.0475111497412004 107 74 14 0.13344785936123849 31 611 30 909 2 113
2357 -0.1417386464913121 0.85711691961589764 3.7552440656546948 18 14 4 0.932095343872546 40 835 30 921 27 151
2358 0.052929800612543099 0.58810245928635885 3.4444349287525715 17 13 5 0.44427378809799023 39 54 30 925 2 580 28 415
2359 1.1409977604334474 0.31924655039296579 2.8869963976700501 42 36 15 0.74578944381238677 29 659 40 440 30 929 28 397 27 640 10 520
2360 0.30225764129379484 0.46493030272772035 3.6814023145038051 155 137 117 1.1414801228064375 40 794 30 941 10 372
2361 -0.070598682860325626 2.071122064415702 1.9789105469804136 242 200 61 1.1197231597846375 5 1130 40 1069 30 953
2363 0.28286424795294707 0.49434392136689381 3.6097091832128636 172 130 28 1.0565599113266122 31 849 40 1006 30 1046
2364 -0.23990027006406972 1.5183052805888428 2.2407667830572047 48 40 30 0.1801587960255254 40 1161 30 1075 2 478
2365 -0.74073795787795615 2.111936937030805 3.2687460242347162 43 35 24 0.64578868297847747 31 1064 40 1191 30 1086
2366 0.27859859282727811 0.95492848613372405 2.1557191227981169 229 204 171 0.70114430091977054 31 1109 40 1138 30 1100
2367 0.33291961127774006 0.78391370936983074 2.3048419644099138 181 139 42 0.16392355492010863 31 1048 30 1115 27 582
2368 -0.13596087717032709 0.82757740318680173 3.7595150767413634 175 155 131 0.49834993359167995 40 1221 30 1138 27 831 2 1089 10 662
2369 0.38587923065005258 1.2501517871634924 1.8687537190787047 44 37 27 0.10134633829815153 40 1270 30 1225
2370 0.03543288113546518 0.60028545720935123 3.3723917471511737 198 156 41 0.63548279469817304 31 1195 40 1310 30 1281
2371 0.27313791991917447 1.7355239440892327 1.9543667719215267 58 50 39 1.2346494000683084 29 1044 30 1343
2373 -0.23919467141618714 1.5672282275315657 2.2333264701786169 229 188 72 0.72436308067434674 35 83 36 466 13 512 31 500 30 786 39 1248 40 869
2374 -0.49434491273664893 1.443868613494838 2.7536418214508021 234 199 69 0.55013854580795618 41 576 5 1072 39 1247 35 564 36 708 37 820 16 806 13 990 40 1077 30 833 31 788 3 823
2375 -0.40399929259054768 1.0822463474370356 3.5219819677373478 18 11 2 0.32765654537989936 31 837 13 533 39 987 30 890 13 534 40 865
2376 0.79930612031013359 1.2094582057616194 1.7628224593194728 235 205 161 0.69341762292182474 34 832 38 1063 18 441 17 869 33 373 22 374 20 519 14 975 41 1091 5 1270 29 834 31 1018 30 978 13 936 40 999 26 661 28 644
2377 -0.51765511715084322 1.4851221229918918 2.8060569247195271 247 224 192 0.45529599860874126 35 570 36 713 16 507 37 822 13 997 39 1255 40 1083 30 981 31 951 3 825 4 981
2378 -0.47278351567338422 1.5059613070095534 2.6821834527921156 248 229 188 0.3589416132337267 30 529 4 68 12 47
2379 0.099548285010493176 2.3499013663217658 1.8477554167383097 72 63 48 0.44174459233913704 3 398 4 94 12 65
2380 -0.60004058035174279 1.8808006518399074 2.7756729462432079 246 211 83 0.13435429042329139 3 191 4 139 12 128
2381 -0.54668707582782883 1.5448741228442846 3.8478991771432161 51 44 32 0.81660958264410932 39 317 4 223
2382 -0.46773245428657273 2.82773319376932 2.8117215935132225 199 157 37 0.23038141615787253 16 341 4 333 12 353
2383 -0.38893516413544066 1.3226972373092896 2.6373554676631041 245 211 74 0.33798377143255598 3 665 4 462 2 85
2385 -0.52206174370891789 1.2442800417564288 3.441978719770721 209 188 162 0.27482245678156014 13 227 4 526 12 574
2387 -0.59601131225475823 2.0016607281370833 2.7498954428166371 238 202 77 0.48946471429803368 16 592 4 547 12 589
2388 -0.63979106289287524 1.7703473186319461 3.0400950543153469 214 190 151 0.37142348910507672 13 868 30 539 4 548
2389 -0.16965900588031804 2.6179020988107293 2.1502555843073665 230 209 182 0.33832977327171138 16 611 4 562 12 605
2390 -0.70858337543403238 2.1821138568558558 3.2168097013650443 217 196 171 0.28308596409412012 37 213 4 612 12 661
2391 -0.49792747952217459 2.7865418572615832 2.8825078611399229 220 179 67 0.32006883927659779 16 340 4 663 12 714
2392 -0.45433618336026049 1.6484985721402419 2.532825987418676 240 223 182 0.20201690746239595 31 761 4 781 12 858
2393 -0.50102021286691523 1.4493239963392368 2.772035859300789 250 219 80 0.10495939758554354 37 669 40 652 4 782 12 863
2394 -0.49494125935478578 1.2526831812222374 3.1791835687579133 248 216 96 0.27385410314920788 37 394 4 790 12 547
2396 -0.62415470597360212 2.5803488315523575 3.0336760569418986 241 220 186 0.77052792763880362 3 537 4 887 12 1090 16 1066
2397 -0.16501976613512392 1.7933243126411713 2.0924683013546206 252 221 75 1.2655904955516233 37 945 4 969 12 1144
2398 0.60975533094693923 0.49580065884113678 4.0999785621471325 0 0 0 2.1217688789788287 39 930 4 988
2399 -0.38966381510299308 1.0488634957021139 3.5162010015104124 229 206 180 0.27910300023669227 3 991 4 992 12 1024
2400 -0.54744268353230718 1.3364568542707194 3.5528000995433393 235 216 192 0.67368787754887427 3 936 4 1011 12 900
2401 0.0071000979247506802 2.8748587935681416 2.1588376214553611 236 212 189 1.0507118085758356 37 776 4 1024 12 1058
2402 -0.710991988826565 1.9784945631425781 3.340772006009384 53 53 45 0.25985641544881727 3 857 4 1027 12 1064
2403 -0.72393993961018677 2.1726544968033519 3.2543545296648957 50 42 23 0.4856532961904878 37 710 4 1032 12 1070
2404 -0.50419160419684939 2.8164786133279485 2.9291250085460283 242 219 181 0.39737413332880284 36 629 4 1051 12 1099
2405 -0.36811438486942727 1.6533296725016193 2.3741447432758562 244 228 192 0.48910497018411575 5 1096 4 1101 12 1148
2406 -0.35187901161147356 2.7717227189854361 2.5288548962066804 245 226 196 0.33736072270866946 16 1163 37 983 4 1144 12 1177
2407 -0.16384512441203675 2.6763032539004561 2.1669107466813404 221 198 166 0.43157346273494035 16 1204 4 1218 12 1248
2408 -0.72061935097055141 2.1446898811063448 3.3085213887936384 201 180 155 0.20950511797139745 16 1046 4 1228 12 1258
2409 -0.72074029298808096 2.1378959134619619 3.4148687183699979 197 177 152 0.96669351872902765 3 1011 37 953 4 1278 12 1310
2410 -0.38018267810114725 1.6583255988333634 2.4013076141587599 241 225 192 0.32378355497964201 31 1209 4 1296 12 1285
2412 -0.63374558047564944 1.7553834294754893 2.9738946034548612 239 205 77 1.4667152552581681 3 1129 4 1365 12 1408
2414 -0.29968874654080324 1.3928885763330665 2.4030293126895024 238 201 75 0.50015738960689526 37 665 31 759 4 451 14 738 41 795 5 1068 39 1224 40 1050 30 972 12 19 2 56
2415 -0.61892978442062985 1.6309950065173637 3.0132687724449312 101 87 72 0.66812157531544591 39 1079 40 946 4 530 30 153 36 128
2416 -0.16597137902852782 2.599372425090877 2.1550548847862689 43 32 15 0.52091527830883755 5 726 31 444 4 558 36 598 15 655 16 867 12 601
2417 -0.66738346359920808 2.2691527134065854 2.9831500965549949 181 138 33 0.38742001422629496 15 671 16 630 37 551 4 853 13 364 39 887 12 646
2418 -0.64413925051369969 2.4455732097633884 3.0703624029456531 161 123 28 0.88589562845178516 13 911 39 1327 3 854 4 1147 35 723 36 942 15 1226 16 1162 12 1181
2419 -0.3270495481485407 1.4610856719727801 2.4161009755034502 199 166 113 0.65560113691303468 14 1135 41 1169 5 1387 39 1551 13 1190 40 1313 4 1188 35 1412 36 1088 15 1255 37 1070 31 1177 30 1223 12 1222
2420 -0.42250129762547528 1.519139056385914 2.5391944215135114 239 196 70 0.98111301679388341 16 1117 37 1021 30 1226 31 1184 4 1193 5 1351 39 1518 40 1280 12 1229
2422 -0.45547776361640413 1.1451115808489849 3.3922329826551971 232 187 74 0.17883978843748638 4 508 12 101
2423 -0.22119415682034138 2.7319765073169586 2.3117288716771003 240 210 166 0.30794050184726551 4 584 15 360 12 204
2424 -0.36560249552213647 1.4059365333852165 2.5303881258256364 233 187 39 0.09594404874208276 4 771 12 507
2425 -0.42138697524726537 1.69299860291272 2.4368631749893845 240 201 57 0.50250972628258328 5 918 13 224 12 525
2426 -0.65170670849260559 1.5801201296136722 3.3017167651448962 246 227 204 0.096066435448918186 4 553 12 598
2427 -0.12562547921467107 2.7851289103628369 2.1858113215404118 50 38 13 0.0038597755770915527 4 577 12 620
2428 0.077487959965708023 2.8890858114917464 2.0893654387804501 45 37 19 0.66825920054757582 4 578 36 829 12 623
2429 -0.62812999842536155 2.5930087777763386 3.0739743562060662 205 157 33 0.28077565598777349 4 661 15 406 12 711
2430 -0.55730344561082179 2.4684617771780184 3.9523728416506683 176 133 27 0.035562424066116718 4 377 12 767
2431 -0.24838242498202046 3.0084439500972495 4.1425369340860554 39 25 1 0.066037799363785996 4 426 12 800
2432 -0.17227593193191826 3.1528042449542149 4.0387190856252584 147 109 27 0.084433153365777849 4 750 12 809
2434 -0.5778469547356293 1.9890200734360659 2.6984753364166751 249 207 58 0.11344307744623811 16 184 31 529 12 886
2435 -0.60860087991000755 2.5507721484154739 2.9224361253440887 231 207 172 0.43254081352204349 3 248 4 869 12 934
2436 -0.20642688955501021 1.5663539157538278 2.1971997976845343 248 224 201 0.2613445911082658 4 964 12 1002
2437 0.068027658431091625 2.4571318708437024 1.87897369289286 62 50 33 0.11251274003127831 4 997 12 1019
2438 -0.63151533996733245 1.8938251109967486 2.8585136970275276 186 145 91 0.14512041110057283 4 1010 12 1035
2439 0.071068684928200454 2.9201808784583303 2.0555186874884028 55 47 28 0.2348793017967431 4 836 12 1054
2440 -0.72062212299363515 2.1738631851653389 3.2546821566275708 43 36 21 0.30225752826165703 4 1033 36 781 12 1071
2441 -0.7705281601762124 2.2559014588861128 3.4147689355329027 191 141 25 0.21941161033757745 4 1155 12 1089
2442 0.33541048221758685 3.4675475576863279 2.4987189742165814 182 139 37 0.63108488551074271 4 912 12 1106
2443 0.49301011649080762 2.0349886712631484 1.6093314785171058 82 67 48 0.061729734637881062 4 1094 12 1223
2444 -0.32903503035012643 2.6773760457480194 2.4109729956109098 234 189 44 0.62041520784541748 16 1273 36 1126 12 1301
2445 -0.71111401027208654 2.1345181746203181 3.3600874316712592 33 27 9 0.38159503760232683 4 1277 12 1309
2446 -0.27531486066925304 1.5294086105940459 2.2811588307930513 252 211 50 2.2422479891196261 4 1323 31 1241 12 1332
2447 -0.34378335870152299 2.7317830126916176 2.5077792593479629 182 146 50 0.43420204356625286 4 1273 16 1278 12 1350
2448 -0.094690427631389684 0.76578706532189011 3.5647440264996377 120 102 80 1.0710968268701913 4 1350 12 1364
2449 0.15509190675206169 2.9629187785454452 2.0995300340207379 236 211 180 0.91737760116876044 4 1328 12 1388
2450 -0.7144519221096246 2.2243957096412172 3.3591954989967969 229 206 171 1.7758887679190549 3 1087 4 1364 12 1396
2451 -0.56495588944564989 1.7354083689958504 3.6631157738827018 40 32 20 0.36665596837947279 4 1371 12 1416
2452 -0.55357913029977424 1.6224987070122272 2.751208763197293 247 217 97 1.2368199162394446 13 590 37 476 3 445 30 517 4 500 12 66 37 119 3 169
2453 -0.62026334570477137 1.6502993916038176 3.0046666873640828 36 25 2 0.77847652662185829 3 212 30 150 12 124 13 290 30 562 4 531 4 133
2454 -0.34265370487792052 1.6284129681987718 2.3421301195630528 208 168 65 0.87827161137864251 41 979 5 1217 31 1110 35 584 36 720 39 1399 12 1005 13 983 3 905 40 1066 4 974
2455 0.47293851998130637 1.8921028619088451 1.6542115079280999 77 60 27 0.4810467072152968 4 29 12 17
2456 -0.49014712708127545 1.1881751469646968 3.3640910314666037 101 83 46 0.039590302692463067 4 994 12 878
2457 0.38549022574454189 0.47757429343305008 2.8401605453879957 219 197 166 0.29767968861369276 29 420 23 22 26 43 28 554 2 505 27 614 10 284
2458 0.63110686380948822 0.93440393511288133 1.9959622076263195 254 238 113 0.66190192760477007 19 341 23 50 26 307
2459 0.93528250190879125 1.1488782014484262 1.7890522305190124 149 115 28 0.24194971814526925 29 373 23 73 28 296
2460 0.93528250190879125 1.1488782014484262 1.7890522305190124 149 115 28 0.24194971814526925 29 372 23 74 28 297
2461 1.1314776400264068 0.30009458000142186 2.9366229804592661 180 147 67 0.28471879271935369 29 458 23 77 26 555 28 408 24 390 1 48
2462 1.1479139412939341 0.28516865505743549 3.0441228149529804 197 162 60 0.55160025848297545 29 224 23 80 26 96 28 194 24 397 2 97
2463 1.6370794534967659 0.57586262212425154 2.4484542409074801 176 146 92 0.1791449778453548 29 222 23 128 26 388 24 110 25 90 9 79
2464 0.34270356587592699 0.96264556285745095 2.0957754536906177 156 136 109 0.29723554776791267 29 553 23 272 28 521
2465 0.33842935533750645 0.96257042906484158 2.0943447906227299 156 136 109 0.63801896798534241 20 11 23 273 26 289 24 334 25 0
2467 0.77651315876474358 1.1406435628879117 1.8201382937856161 216 177 57 1.428654891899553 29 736 23 298 28 295
2468 1.4987191898196344 1.0338519162078406 1.9095948409054182 35 20 3 0.60885398064813301 29 633 23 332 26 340 28 83
2469 1.6639711429930135 0.51836261505412673 2.5529298013018229 66 59 49 0.27966759641868655 19 81 23 351 26 395 28 368 24 420 25 439 9 355
2470 1.6709710807484461 0.58903304376339172 2.4336911007726765 224 205 178 0.46206717465310787 29 462 23 352 26 155 28 356
2471 1.8269493718806342 0.60795450594331291 2.5256674531557697 15 8 2 0.97708311789296975 20 165 21 63 23 374 25 151 24 446
2472 1.990041684822613 0.66376032850317923 2.6133764263904204 177 160 142 0.14830239129468187 29 249 23 391 26 440 24 494 25 498 9 404
2473 2.2364907475968128 0.84096186504578718 2.6016510442237375 44 41 32 0.47314905758793779 21 675 23 431 26 468 25 720 9 430 21 119
2475 1.4629781361991845 1.6300179081618535 1.6259642108256782 206 166 55 0.39436322979012567 29 748 23 512 26 549 9 329
2476 1.7140385054619538 0.59368575164525872 2.4508110012853401 204 178 155 0.29660661254009713 20 558 23 515 28 544 24 643 25 648 9 357
2477 1.7140385054619538 0.59368575164525872 2.4508110012853401 204 178 155 0.29660661254009713 20 559 23 516 28 545 24 642 25 647 9 356
2478 1.9634774655510692 0.50042451639977659 3.0137365573991404 50 44 32 0.46463822059900872 29 693 23 539 26 612 28 417 10 150
2479 2.2036298037505855 0.8611860546159249 2.5262227871608891 38 37 25 0.37141309230428804 21 879 23 555 26 724 25 857 9 741
2480 2.4545055295289075 1.464213820465994 2.2580214707731163 141 104 48 0.59913541952852645 21 928 23 578 26 620
2481 0.44216520355383093 0.48478460528624667 2.7674510243410171 151 123 42 0.34402973539468323 29 767 23 589 26 664 28 747 24 873 25 387 9 508 27 828 10 713 1 203
2482 -3.4918731994762391 13.816975755809073 18.967443150863669 54 48 36 0.85598806925802962 20 347 23 616
2483 1.7861726562643716 0.40938803141190261 2.9367581588048428 44 37 25 0.61571248926480471 19 587 23 637 24 902 25 929 9 824 21 859 1 359
2484 1.1606333243918807 0.29841564522274849 2.9257530689364351 63 55 43 1.1447598973208519 29 900 23 694 26 847 27 897 2 1050 10 767
2485 1.1569152891311427 0.29906903206018876 2.9259284994748707 63 55 43 0.74397436617069668 29 899 23 695 26 846 27 898 2 1049
2486 1.4189722496012891 1.053885644815187 1.8416686671651605 226 186 72 0.72573792415706628 29 893 23 703 28 733 24 877
2487 1.6814286267414358 0.40576805549618955 2.8674150364472388 185 159 129 0.56307448398695026 29 854 23 709 26 860 28 811 24 1020 9 889 1 494
2488 0.53591694092440412 0.86512742999772518 2.1060043283883743 223 182 58 0.66190392131117815 29 929 23 748 28 828
2489 0.61015679874145534 0.66308261730538542 2.3489364969556989 236 203 75 1.7250433760389161 29 985 23 751 26 831
2490 1.1327595467540295 0.325150835621906 2.8274347529883661 228 189 68 0.71913210839678532 29 897 23 758 28 810 24 1014 27 840 10 762 1 491
2491 1.1998827889764323 0.31292003171685279 2.8725527047005248 227 207 176 0.73373167097254377 29 901 23 759 26 850 28 847 24 957 27 896 10 765
2492 1.5249902776867033 0.97845613501026818 1.936681420923559 68 61 46 0.55460745111031184 20 1281 23 764 26 774 29 842
2493 1.6002941627627243 0.64485790362953821 2.3339362625157762 199 159 42 0.5888371688341929 22 908 23 767 24 959
2494 1.6852720673406481 1.8326431244411581 1.6482547502001037 77 63 36 0.24187320433502815 29 935 23 778 26 776
2495 1.7567966663112 1.8321877502355157 1.6698481048755223 71 55 36 0.21328393450972671 29 888 23 780 26 779
2496 1.9953178177750313 1.6460363306566768 1.8080878729101777 48 39 22 0.28514451411186553 29 949 23 787 26 794 9 823
2497 1.6703578370451684 0.5743105330062177 2.4627448967425343 29 23 10 0.21919497981201896 29 958 23 813 25 1037 9 935
2498 1.6943245509707057 0.5991812548233113 2.4217664402770289 187 161 132 0.48613212361791136 29 957 23 814 26 891 28 834 24 1055 9 934 27 842 1 532
2499 1.6942868400882212 0.59934554788433014 2.421145563466589 187 161 132 0.58485850866887668 29 956 23 815 26 890 28 833 24 1054 25 1040 9 933 10 758 27 841 1 531
2500 1.7515321867057321 0.48002669148611604 2.7266533750712654 192 167 138 0.37913206750100614 19 938 23 817 28 843 24 1060 27 848 10 768
2501 0.42830256639587072 0.66710501478049999 2.4003697546722114 251 223 98 0.91476753547709588 29 1018 23 837 26 934
2502 1.2122241526309698 0.27863765528027484 2.9450235267126481 61 53 40 1.5540783298636389 29 1009 23 858 26 951 28 913 24 1072
2503 1.52684866269446 1.0847253926089797 1.8287054981243707 215 175 62 1.5117722409720744 33 1019 23 861
2505 1.5887517027906028 0.81191758416673199 2.1139192519822445 234 217 194 0.45526103779363025 22 94 19 109 20 152 23 346 41 374 29 650 26 369 28 340
2506 0.10986740011823551 1.0392018461356887 2.2372973325651331 244 225 200 0.2444432359288442 23 5 26 2 28 330
2507 0.37012639791380136 0.97008278154601257 2.0975139814581674 37 28 10 0.23474618090569907 29 75 26 12 28 79
2508 0.19859561985682067 0.50625508383252271 3.0881510829564385 233 209 175 0.38151677256504163 23 6 26 38 28 385 27 405 10 297
2509 0.34386315161476849 0.48176457318209109 2.9118783734968301 207 185 160 0.21930862729402945 23 17 26 44 28 154 27 133 10 53
2510 1.1510555449298931 0.73492816060177391 2.116478168320806 127 90 20 0.18490393544907738 23 86 26 61 24 53
2511 1.1918057365585883 0.26520209960891716 3.1314069955536716 249 229 212 0.27191596691397302 23 88 26 113 1 62 24 102
2512 1.1749233724987034 0.2603948445413049 3.1756029290573213 184 146 59 0.42623389838894488 23 85 26 114 24 632
2513 2.1945291527559379 1.7897906069969689 1.9137060526073573 97 75 40 0.20265391202998062 23 436 26 195 25 524 9 191
2514 1.8072657479348566 0.4294105706821314 2.9182781175060621 126 114 75 0.13313804458069839 23 145 26 212 24 489 9 152
2515 1.8384773430490806 0.47408577935055818 2.8677095514661097 20 15 2 0.43684873444199945 20 148 26 213 24 492 25 194 9 155
2516 1.6247361176062205 0.35124665295941249 3.480073722125328 180 154 127 0.26411134874074199 23 123 26 215 24 225 25 233 9 184 1 126
2517 2.3525887409185389 2.1061478534406461 2.058348211180999 88 68 16 0.83245882304025931 23 246 26 223 25 554 9 446
2518 0.34294650818992239 0.96184191839175304 2.0952950520649565 173 151 121 0.287140470502041 29 552 26 288 28 520
2519 0.33311300011805617 0.75050124562952059 2.347142884428707 253 229 105 0.47900427062619322 23 271 26 294 28 740 10 708
2520 0.6765248440064151 1.0194037082335261 1.9446288774721869 249 225 109 0.38163765909385633 23 57 26 310 28 508
2521 0.36528983848082019 0.48210399047195385 2.8442666651213591 152 131 104 0.34521045048307247 29 417 26 315 24 356 1 21
2522 0.23559575026771332 0.50000130591625513 3.086243092157158 235 211 181 0.46006866467814816 23 262 26 316 28 570 27 619 2 528 10 500 1 32 24 37
2523 0.3434674243423102 0.50879629268835302 2.8994555807931111 218 194 170 1.7466415753263602 23 20 26 317 24 28 10 54
2524 1.0523853246229569 0.32357147840376266 2.8688879995313932 118 91 33 0.14433941031900169 23 72 26 339 28 392 9 322
2525 1.1179461216092046 0.31093072946182049 2.8993754303793806 201 175 139 0.35993930530633322 29 658 26 345 28 577 9 324 27 636 40 18 10 521
2526 1.6430620220992376 1.8043389513050347 1.6345098098996147 87 70 31 0.22541269235024428 23 531 26 347 28 14
2527 1.21215008538869 0.33011384484377126 2.8372671140384034 224 205 180 0.32496135275211085 23 89 26 359 27 464 2 72
2528 1.1116554918203154 0.39807205498533776 3.0951443981545679 231 212 186 0.76922059800475329 23 81 24 770
2529 1.1628266815165922 0.28785211672795652 3.0382571319070637 60 48 22 0.44251458735861265 23 310 26 367 28 589 29 661 10 532
2530 1.1937438567020346 0.26351021689838589 3.3593838208614755 166 134 54 0.50829551028412212 23 93 26 377 9 94
2531 1.6724277106131877 0.501152676170458 2.5879313754290845 56 50 39 0.44609306101215296 19 365 26 402 24 425
2532 1.3005358250627386 0.25240283596871727 3.5483198419928921 178 152 125 0.22078090616142926 23 98 26 404 28 460 24 458 9 130
2533 2.0156991518500558 1.568896482325443 1.8398648826255368 157 120 40 0.15997640976789804 23 413 26 405 25 492 9 394
2535 1.6914836270784754 0.41512919570864115 2.8425153997240864 178 157 130 0.7797031415355119 19 358 26 419 24 795 25 462 1 228
2536 1.4725658859152586 0.27054396802608011 3.4269024715041319 57 47 37 0.7153176283269449 23 330 26 420 24 803
2537 1.5480234800443635 0.32782288003327364 3.2462593683091772 223 200 174 0.30085712028551731 23 114 26 421 24 474 28 436 25 476 9 391
2538 1.5894135181003111 0.33747565961332782 3.1844113236126388 214 188 161 0.32552484021567896 23 117 26 425 24 800 25 685 9 563 1 240
2540 1.7929730660458172 0.39389878560031744 3.4252577948541756 224 198 175 0.18769042040935982 23 143 26 454 25 257
2541 1.9676662290502842 0.49473608216892695 3.0816003402721956 129 119 78 0.36668637982824137 23 177 26 461 28 198 29 265
2542 1.9676662290502842 0.494736082168927 3.0816003402721956 129 119 78 0.36668637982825192 23 178 29 264 26 462 28 199
2543 2.2364907475968128 0.84096186504578718 2.6016510442237375 38 35 30 0.47314905758793779 23 432 26 469 25 721 21 676 9 429 21 118
2544 2.4324378112241898 1.0958487175535483 2.5709964528803959 178 144 61 0.42731917080553167 23 245 26 481 24 276
2547 2.3606401699716213 0.74245130813820981 3.3919830675924527 163 137 109 0.19859262413503453 23 226 26 493 25 885 9 770
2548 0.62297604570830067 1.2338782150542305 1.8030381133766886 100 92 82 0.283674113870307 23 480 26 520 28 489
2549 0.90722149304745303 0.34861549742449327 2.8442148082749763 164 130 43 0.11177060575768348 23 294 29 652 26 547
2550 1.1049423760942385 0.31764680746266222 2.8784150867089404 142 111 54 0.24141646126828156 23 308 26 552 24 615 25 630 9 523
2551 1.2031372295655123 0.34027006620222688 2.8077117596882819 182 155 115 0.62651380715175453 23 311 26 557 28 386 9 325 25 413 10 87
2552 1.8685458774449712 1.3855800772245237 1.8293414994748887 158 121 46 0.49281110566431113 20 1091 23 541 26 565 28 510
2553 1.2956439008820391 0.27631548877914219 3.613321777957077 219 195 169 1.2836674754067021 23 320 26 576 24 894 1 463 27 865
2554 1.80426185764007 0.56219617996398441 2.5842987441989109 39 35 26 0.27179058218932128 23 525 26 593 28 553 24 663 25 671 22 77 9 554 1 57
2555 2.1772038342476439 1.4947907078073874 2.0123333183395244 57 47 37 0.18614729607525024 23 559 26 599 9 589
2556 1.7918685839456385 0.4297518367270699 2.8929387893486305 29 25 13 0.33078291193985193 23 521 26 600 25 829
2557 1.8532297962089472 0.41496126678104051 3.3033135812436956 207 178 148 0.29697835683376628 23 373 26 611 24 828 28 609 25 856 9 744 27 696 10 564 10 683
2558 2.3725551356361572 0.77665449914288187 3.2591646516261039 199 157 64 0.22094747052740074 23 439 26 631 24 855 9 640
2559 2.3752150994907262 0.77154392628326396 3.2924360171036753 190 148 58 0.20809469330670138 23 232 26 633 1 272
2563 1.1844478582399067 0.27911080059442617 3.0129257840074732 53 46 30 0.59179621190542198 29 664 26 675 28 699
2564 1.1955676158646806 0.26922036850130127 3.0942685742717151 243 220 198 0.084044993330555123 23 494 26 677
2565 1.7281017820217708 0.71210952323095089 2.2818742747234446 35 32 23 0.17768833864372183 23 635 26 693 25 807 9 688
2567 1.2958047134302351 0.25027191054031167 3.4492604936240694 206 182 158 0.37771341765284477 23 615 26 697 28 712 24 890 25 667 9 552 27 774 10 678
2568 1.6820879705077503 0.36047031934850327 3.1568861507119861 129 102 73 0.3249176233485262 23 628 26 713 28 704 24 806 25 833 9 716
2569 1.7828398158678962 0.40292664608890705 3.1855677024387008 203 176 147 0.48877176651894022 23 638 26 717 28 705 29 692 24 816 10 675 1 243
2570 1.7997702535432418 0.40267864883782994 3.2902065914490803 220 194 168 0.40030857354729626 23 523 26 720 28 605 24 821 25 850 9 731 10 562 1 255
2571 1.8466076333042432 0.40460403501383246 3.4012649801927139 214 187 164 0.46236147298075814 23 528 26 723 28 711 24 834 25 715 9 747 27 701
2572 2.2019882634578138 0.96911222758356641 2.6025657435485239 32 29 24 1.7757431807933972 23 556 24 826 26 725
2573 1.9200317166031178 0.43395447172286716 3.2744730366225245 204 175 147 0.35396578143717156 23 537 26 726 28 710 24 918 25 946 9 835
2574 2.0957806230013665 0.61740773196989995 2.874199082585291 44 37 29 0.2375441665316399 23 648 26 729 25 944 9 832 1 371 24 913
2575 1.8856147747832452 0.46854187347253595 3.8260815712130181 201 177 148 1.076099505077831 23 378 26 737 28 627 25 1006 9 905
2576 0.28298791526797051 0.89995615682455021 2.0950280214937527 30 23 5 0.34974430927219308 23 679 26 750 28 796
2581 1.4519341592339852 0.27402308435227402 3.4042815172933434 195 168 148 0.51504420418763674 23 617 26 797 28 766 10 733 27 864 1 379
2582 1.5710565802824612 0.32077774716460977 3.3475821560233769 186 160 132 0.41755386048166254 23 621 26 800 9 893 1 504
2583 1.6646255205863569 0.35566159599188624 3.0898400865707467 202 175 146 0.35785145137265734 23 510 26 801 28 762 24 900
2584 1.7145344182513853 0.39563528711892321 3.0709175955500467 165 137 109 0.15266085307099553 23 632 26 804 1 456
2585 1.7365685960057848 0.40367013050360162 3.1433291619577823 208 180 154 0.82014540717860007 23 713 26 806 28 703 24 904 9 719 25 835 10 549 1 369
2586 2.0422218908780962 0.55997507825738091 2.9631197937820177 120 112 73 0.74267180891314433 23 728 26 809 28 758 29 802 24 984
2587 2.1942460213696222 0.70884210123208091 2.7868158114567918 36 32 23 0.32815438771674565 23 736 26 812 9 900 25 1004
2588 2.454967341422031 1.3503715954279039 2.3255876348633993 189 165 141 0.65336104142466744 23 793 26 813 28 533 24 842
2590 1.4846534950164858 0.96260904725579499 1.9247681239688339 208 166 58 0.46301632877618132 23 762 26 844 28 736
2591 1.7716780812560435 0.40982348023345039 3.1425377493135174 45 28 10 0.49348429049386527 23 716 26 862 24 982 28 764 9 828 25 934 10 729 27 690 1 501
2592 1.7959220497826172 0.38886883232415148 3.4521755018093256 212 186 163 0.382573500715647 23 720 26 866 28 823 10 780
2593 1.1688714489634922 0.26184819618359673 3.5992739273756542 225 180 61 1.5781376713902411 23 760 26 887 24 1059
2594 1.2458169693622909 0.25792815203604019 3.4384225842793974 47 38 24 1.5148582335045628 23 804 26 888 24 1018 25 921 9 886 27 971
2595 1.8311237670903229 0.39436798096582404 3.1277858867005079 205 178 151 0.69485623745734137 23 819 26 897 28 879 24 1028
2596 2.0185317690986766 0.49634228696671234 3.2121838981611179 45 38 28 1.2694245093697134 23 826 26 900 25 1082 1 554
2597 0.47999858257215833 1.0771653484015955 1.9757111092986392 65 59 45 0.41892018886793658 23 840 26 910 28 889
2599 1.2570188835772793 0.33507286094230243 2.8132224432496971 53 45 32 1.8860960986196051 23 848 29 994 26 918 28 873 24 1071 28 910 10 843 10 851 27 987 1 533
2600 1.1542885150220714 0.26371685666055139 3.2773477420754391 221 176 60 0.96707886806856014 23 846 26 919 28 901 10 853
2601 1.1724813996398318 0.26440310412044032 3.4671770567380338 210 183 157 1.695853916745921 23 847 26 921 28 883 24 1057 25 985 9 939 27 970 10 856 1 543
2602 1.6511572893772146 0.36853933843027648 3.3728354882706908 190 166 140 1.1655701326531136 23 811 26 924 24 1078 25 1078 9 972 1 582
2604 1.6132429866409659 0.34261533840208752 3.6334568464786661 208 180 156 0.2717287833408164 23 810 26 927 24 1081
2605 1.6121194229145728 0.34485242322335818 3.6379500419994542 208 180 156 0.52691086979511237 23 809 26 928 28 855 24 1080 25 1050 9 975 1 585 10 819
2606 2.8811987622761559 2.1905868117113472 3.0974778301516248 136 101 21 0.26510480939739095 23 672 26 932
2607 1.5988223137402915 0.38029706842017486 2.8721579307534784 44 38 25 0.89770938504908515 23 872 26 952 28 912 29 1024 24 1088 10 868 1 604
2608 1.4959734322378124 0.63074508104841087 2.406195184112629 215 174 47 1.5266632438736525 23 894 26 970 25 1130 9 1022
2609 1.6599558865355231 0.41191192426627887 3.2341493089014879 217 190 162 2.1198283228299246 23 895 26 971 24 1109 1 632
2610 1.870287344091375 0.44734597660694969 3.6642835535950993 68 60 48 1.7481116336896785 26 972 24 1107 25 1135 9 1027
2611 1.3531849699482368 0.33984025545989793 2.9471430731869681 54 46 35 0.079336625685247186 23 893 28 928
2612 1.7256201853435245 0.54704953587908756 2.5442728831575949 42 40 27 0.34688057021751273 26 407 28 139 24 141 9 103
2613 0.40850803823227272 0.47737021705576199 2.8006410347435482 223 194 160 0.37166908139517191 26 42 28 140 27 128
2614 0.34280079923075452 0.48323209357297336 2.9131851574865344 206 183 152 0.013173521028156387 26 45 28 155
2615 1.819804493605524 0.43681206251659738 2.9206025565125135 31 24 8 0.15696165982595706 26 214 28 184 24 493
2616 1.52326320006886 0.30507749811944013 3.3266214656787167 147 125 101 0.66513611960990249 26 187 28 227 1 98
2617 1.1808583631479277 0.25329103836842404 3.3938050050244484 195 169 139 0.21220987789875265 26 132 28 229 24 421
2618 1.2292141800162144 0.25633522336545828 3.3918074653895181 237 221 206 0.26186477984182593 26 142 28 232 27 255 10 169
2619 0.45954992569229808 1.1549055447861294 2.0467758036123485 40 33 8 0.4851794848184518 23 36 28 317
2620 1.4936921502346643 1.0369459024261081 1.88878825969258 175 138 43 0.33193193644097579 23 116 28 323 9 42
2621 1.6480838984505992 0.62369943786970694 2.3551820002976545 55 47 30 0.47582404541317191 23 131 41 8 28 353
2622 1.8194657717989262 0.58934464954010157 2.5467351421597573 157 134 109 0.18402358346274314 26 591 28 366 24 661
2623 1.7327196521884261 0.53733155028459423 2.5692567957052335 46 44 31 0.19553126235710172 23 361 28 369 25 450
2624 1.4123732025940261 0.44263811611165416 2.6268827109186086 171 136 43 0.20115651576951071 29 218 28 372
2626 1.0877396942950521 0.32088152118479818 2.8632768862806355 218 191 154 0.32584894405977555 26 76 28 393 27 199
2627 0.15341260873964915 0.51960060161649069 3.1994656242665447 169 130 57 0.98940788359631826 26 535 24 362 28 395
2628 1.2136073333611699 0.30773285840063008 2.8719289907841219 228 205 179 0.30550482298874865 23 90 28 398 24 621
2630 1.1581197009830799 0.30408841110061952 2.8923550566161893 237 211 185 0.11873657715776464 26 353 28 401 10 523
2631 1.6499633697640805 0.38445128433040393 2.9018546455349052 166 143 115 0.24516032947541921 26 414 28 409 10 115
2632 1.6541990421312915 0.35184735407896761 3.1428623677401317 187 160 133 0.31371003916462037 26 434 28 426 9 397 25 182 10 381
2634 1.7984105885152304 1.6362052767334445 1.7161569607996212 120 96 40 0.33750344217701 26 680 28 494 9 546
2636 0.36289180896984685 0.48383479226957982 2.8490039541562298 142 121 92 0.63626584902993955 26 314 29 418 28 555 24 355 27 613 30 696 10 492 1 20
2637 0.34113176463331757 0.48544201131421094 2.8819608535790686 140 116 88 0.26679095459705943 23 474 29 415 28 557 27 403 10 495
2638 0.80113778686138137 0.36071352566422604 2.8360533662476968 223 194 160 0.32125043918880158 29 648 28 568 24 377 27 438 10 299 1 38
2639 1.161904401408937 0.28632241695978228 3.0371837116082263 57 44 26 0.30163496562625258 26 366 29 662 28 588 10 531
2640 1.1359550321772869 0.25117291523985025 3.4573917144098756 206 180 151 0.55963075392304029 26 376 28 612 24 644 27 671 10 554 1 87
2641 1.9603210212522939 0.47640130691453642 3.5483587760941817 146 130 106 0.21077581067641393 26 623 28 615 24 708 25 546 9 450 1 141
2642 1.9505582422936854 0.4431506875429404 3.2728514839728291 37 29 16 0.18604870446963084 26 730 28 708 9 750
2644 1.7063870550143065 0.36392017443803348 3.5731678353401386 196 172 148 0.15038236563685151 23 514 28 714 27 703 10 689
2645 1.6473732096692248 0.6381634542303013 2.3365310412959208 52 45 29 0.63765573835484579 26 790 28 744 24 961
2646 0.84886170631419444 0.36394660014954794 2.7960676517907372 229 188 74 0.22775487012653453 29 844 28 752 27 835
2647 1.770943212505969 0.40926956416568216 3.1420067785163126 49 28 10 0.56201356002845426 26 863 28 763 24 981 10 728 27 691 1 500
2649 1.7170951998826478 0.39399462738214985 3.1928765520676428 133 110 88 0.93848859099690729 29 908 28 816 1 502
2650 1.5962623283505124 0.64115252819955337 2.3436652636671762 201 158 43 1.2734515871303034 29 993 41 1075 28 831
2651 1.7523079827159538 0.48502117825665736 2.7276163103177575 182 157 131 0.81913078041155618 19 879 23 818 28 844 24 1061 27 849 10 769
2652 1.5071057868773738 0.85224685624705343 2.048081571134011 203 161 41 0.94655680239047901 26 937 29 1007 28 862
2653 0.34217615362025233 0.47992036575803787 2.9106582876750218 201 176 147 0.26604209418686908 26 879 28 868 24 1006
2655 1.730483668511944 0.41041110560986721 2.8686022270855904 169 143 116 0.27668328595184871 23 875 28 920 24 1096 10 870
2656 1.7307519508696265 0.41103533928061675 2.8695765703557701 169 143 116 0.33399352491364681 23 874 28 921 24 1095 25 1103 10 869
2657 1.1059472889717343 0.2619609404212076 3.0988796355089523 203 162 39 2.1604180244148941 26 960 28 922 27 1010 1 621
2658 0.56041287131104589 1.3811050287834834 1.7363765151230421 57 44 27 0.81522333395719038 26 969 28 925
2659 2.0015715514153616 1.3692735718671489 3.0269800543683618 28 22 10 0.2655043307332241 19 1084 10 899
2660 1.68507231443303 0.58065630162255377 2.4500752250889861 17 13 4 0.6615043734685554 26 573 29 666 23 629 26 696 28 543 24 780 1 349
2661 0.59657217596284751 1.0895949715023026 1.9035034548914116 40 35 22 0.51119056750036096 23 686 26 655 28 732 29 876 31 1027 40 1003
2663 0.47840888812249011 1.0521937407419766 1.9632621574754137 84 74 57 1.5788339870094423 23 841 26 911 28 890 38 1736 8 1445 7 1356 18 1248 17 1195 14 1210 41 1257 5 1409 31 1235 13 1178 39 1446 3 895 30 1294 40 1334
2664 1.1765243027771302 0.25370055324584678 3.4972713348457969 230 205 174 0.41044197564372475 28 235 24 144 1 91
2665 1.4973535046247259 0.29472455537473746 3.2959080589593395 179 146 112 0.11088002937005921 28 222 24 188 9 134
2666 1.5948212365058487 0.34422039955876588 3.2891587259778308 141 112 78 0.1875501639408034 28 219 24 208 25 192
2667 1.863920836921402 0.41571120276245149 3.3462512913677087 229 202 169 0.15405870863804852 26 238 24 249 9 205 10 192
2668 2.4596527247851805 1.4475341272088795 2.2826933257829336 150 120 85 0.53827678742049234 26 249 24 258
2669 0.96471930332369216 0.31675504709521729 3.7847088628071419 249 222 187 0.31283351990646296 28 248 24 429 27 506 10 419 1 109
2670 1.5046054585921946 0.31169810641841145 3.2295006922793434 182 157 127 0.1279297989207622 26 175 24 460 25 158
2671 1.9521437005087341 0.44806493268318703 3.2412205119975583 142 130 87 0.17271434740748859 26 243 24 525 9 208
2672 0.6212028186812536 0.59514879762733064 2.3801741395584468 159 126 60 0.43801204185265047 28 534 24 594 9 666
2673 0.1894006135555597 0.51045404136544958 3.1198812542683396 201 166 106 0.31159756608223238 26 534 28 689 24 602 1 212
2674 1.6067912439581302 0.35040332428890963 3.1880840741002405 157 128 94 0.21293413339247264 26 191 24 677 25 482 9 395
2675 1.6296627052813686 0.34681736945314523 3.5221417542459568 201 174 149 0.21149724307948023 26 221 24 688 25 240 9 188
2676 1.9678751111247144 0.46567563797094119 3.2003460681613043 99 92 49 0.27122562293764052 26 464 24 697 25 527 1 124
2677 1.9610188079184143 0.47569406046656454 3.5474577255569315 175 153 130 0.128026086216291 26 624 24 707 25 545 9 449 1 140
2678 2.4306872361353866 0.95139772030334679 2.7658019941447671 132 94 57 0.32375579728502324 26 486 24 710 25 744 1 117
2679 2.1315428367581863 0.61333925902957975 3.6678862708010009 53 42 17 0.40794402758379711 26 487 24 721 1 284
2680 2.3950687652608611 0.76643916197809747 3.3882962162048433 191 161 125 0.75334035192615956 26 275 24 735 25 753 9 474 1 279
2681 1.5116324018644502 0.50128855115358673 2.5421012911717753 199 160 58 0.17281420950567539 26 686 24 773 25 798
2682 1.6928213444012967 0.48204339555806741 2.6753579194640627 49 42 32 0.18244037852481204 26 704 24 789 25 818 9 696 1 355
2683 1.6928213444012967 0.48204339555806741 2.6753579194640627 49 42 32 0.18244037852481204 26 703 24 790 25 817 9 697 1 356
2684 1.7621779016196399 0.49082261667428118 2.7395766466057223 224 200 171 1.3523774785933682 26 708 24 797 25 470 10 342
2686 1.7920699298724758 0.43962378576415678 2.8583274002828651 21 13 1 0.24295213824379147 26 712 24 801 9 706 1 229
2687 1.6961421390935951 0.37505984390312003 3.1162284505487898 159 130 98 0.6215476743876398 28 423 24 805 9 712
2688 2.063320467940811 0.52194786632352486 3.2524178523911749 146 124 101 0.18968534218497318 26 738 24 843 25 728 9 618
2689 1.7305325433335275 0.54846854298002801 2.5583591906949334 39 36 29 0.25149114121240174 26 795 24 887 25 919
2691 1.3059262363486019 0.27876983853227405 3.643110374110766 53 44 27 0.8628311570876912 23 322 24 899 9 708 1 509
2692 1.8342472531563105 0.41533256281484471 3.2838210268023484 141 93 59 0.2234976580790819 26 807 24 911 25 708 9 738
2693 1.834108680558834 0.41173536317305304 3.2820323603978991 141 93 59 0.24559313986766354 26 808 24 912 1 464
2694 1.9189503990870866 0.43471914783869203 3.2746353699263455 222 192 159 0.26782618141135756 28 709 24 919 25 947 9 836 1 386
2695 2.2875018401893867 0.81456052611203134 2.7898120509796724 19 13 1 0.55717655517178544 23 790 24 923 25 951 21 888 9 841 1 246
2696 1.4968907854945852 1.0727815827415488 1.8599007862597012 235 199 113 1.5317041230131296 26 885 24 955
2697 1.6375500695174441 0.34654407155067674 3.2304567990240143 176 150 120 0.65356439906346409 26 803 24 978 10 730 27 860
2698 1.6754791269076987 0.34257291139490414 3.1860663580066988 214 188 155 0.57484060402246606 26 805 24 979 25 932 9 825 10 776
2699 2.3919844588946577 0.77799592356827429 3.4523155699375483 196 151 52 0.61755538219426931 23 564 24 998 9 853 25 960
2700 2.3706257700990796 0.78346312425275677 3.1377715878131123 198 155 43 0.41065647514780945 26 872 24 1034 9 848
2701 1.9543060449735508 0.50063941415876512 2.9597092890794126 28 20 6 1.3018937117900369 20 1284 24 1063 9 944 1 546
2702 1.4832404494755791 0.29086530469177385 3.28563979748813 224 196 172 0.15864133138386013 24 671 25 165 9 381
2703 1.5204513804958519 0.30128133224965742 3.2806765117465129 222 194 167 0.054693285499367722 24 471 25 169 9 388
2704 1.4876724702393185 0.28515479103115055 3.3499445089368325 194 167 140 0.35748760258437334 24 196 26 177 25 170 9 137
2705 1.5185116512194037 0.29537996733311195 3.3595550241497008 177 147 119 0.20064331075951217 26 423 25 181 9 150 28 230
2706 1.3457731987163533 0.29536121610841509 3.7236649200235532 177 142 94 0.95861969680965264 24 682 25 208 9 163
2707 1.5990254426386075 0.35306092634701292 3.4896634469394119 139 112 85 0.12279806579009854 24 223 25 229 9 181
2708 1.8229228483577273 0.40730865903428037 3.3300166659883401 227 198 172 0.17094502467553926 24 520 25 253 9 197
2709 1.8285130049469127 0.40549114031519784 3.3901332942868319 207 180 151 0.1352966658185881 24 521 25 261 9 204
2710 1.9635962790071706 0.5289515240266871 3.8301252080045889 201 165 84 0.21339528810605987 24 299 25 320 9 458
2711 2.0048910932527164 0.55026771231271931 3.7961885350613964 205 170 94 0.076931790805126965 24 300 25 322 9 254
2712 2.3276105714700384 0.72809696691976167 3.530515958508043 185 146 63 0.13579470606370547 24 561 25 335 9 261
2713 0.52982163467808241 1.0648530757116861 1.9446866008948522 88 79 50 0.31151104767959664 24 588 25 383 9 301
2714 1.8236181407117398 0.40688199185662055 3.3543009619585136 206 175 147 0.16180267150082531 26 456 25 521 9 421
